197468.62 559995.90 498.84
197468.62 559905.90 525.76
197468.62 559815.90 555.44
197468.62 559725.90 583.95
197468.62 559635.90 611.74
197468.62 559545.90 638.32
197468.62 559455.90 655.46
197468.62 559365.90 665.88
197468.62 559275.90 674.58
197468.62 559185.90 671.91
197468.62 559095.90 648.59
197468.62 559005.90 610.71
197468.62 558915.90 572.80
197468.62 558825.90 548.40
197468.62 558735.90 544.17
197468.62 558645.90 553.17
197468.62 558555.90 553.06
197468.62 558465.90 531.10
197468.62 558375.90 508.36
197468.62 558285.90 494.72
197468.62 558195.90 481.06
197468.62 558105.90 464.89
197468.62 558015.90 446.73
197468.62 557925.90 422.60
197468.62 557835.90 396.74
197468.62 557745.90 380.79
197468.62 557655.90 369.85
197468.62 557565.90 354.64
197468.62 557475.90 333.70
197468.62 557385.90 304.44
197468.62 557295.90 264.45
197468.62 557205.90 222.93
197468.62 557115.90 192.73
197468.62 557025.90 175.87
197468.62 556935.90 163.90
197468.62 556845.90 154.04
197468.62 556755.90 145.86
197468.62 556665.90 138.67
197468.62 556575.90 130.03
197468.62 556485.90 115.67
197468.62 556395.90 105.63
197468.62 556305.90 113.32
197468.62 556215.90 134.68
197468.62 556125.90 150.45
197468.62 556035.90 155.68
197468.62 555945.90 166.86
197468.62 555855.90 184.32
197468.62 555765.90 200.13
197468.62 555675.90 208.01
197468.62 555585.90 205.04
197468.62 555495.90 197.24
197468.62 555405.90 190.88
197468.62 555315.90 193.43
197468.62 555225.90 200.80
197468.62 555135.90 204.19
197468.62 555045.90 212.60
197468.62 554955.90 226.46
197468.62 554865.90 230.44
197468.62 554775.90 218.05
197468.62 554685.90 192.64
197468.62 554595.90 159.62
197468.62 554505.90 124.61
197468.62 554415.90 96.16
197468.62 554325.90 75.74
197468.62 554235.90 63.09
197468.62 554145.90 56.75
197468.62 554055.90 52.38
197468.62 553965.90 48.88
197468.62 553875.90 46.45
197468.62 553785.90 44.67
197468.62 553695.90 43.12
197468.62 553605.90 41.59
197468.62 553515.90 40.25
197468.62 553425.90 39.31
197468.62 553335.90 38.63
197468.62 553245.90 38.01
197468.62 553155.90 37.57
197468.62 553065.90 37.23
197468.62 552975.90 36.69
197468.62 552885.90 35.90
197468.62 552795.90 35.57
197468.62 552705.90 36.73
197468.62 552615.90 38.71
197468.62 552525.90 39.65
197468.62 552435.90 38.78
197468.62 552345.90 37.05
197468.62 552255.90 36.54
197468.62 552165.90 39.67
197468.62 552075.90 43.07
197468.62 551985.90 41.66
197468.62 551895.90 38.80
197468.62 551805.90 38.33
197468.62 551715.90 39.08
197468.62 551625.90 39.30
197468.62 551535.90 39.41
197468.62 551445.90 39.00
197468.62 551355.90 37.67
197468.62 551265.90 35.59
197468.62 551175.90 34.04
197468.62 551085.90 32.08
197468.62 550995.90 29.88
197468.62 550905.90 28.69
197468.62 550815.90 28.36
197468.62 550725.90 28.56
197468.62 550635.90 28.68
197468.62 550545.90 28.22
197468.62 550455.90 27.97
197468.62 550365.90 28.19
197468.62 550275.90 27.77
197468.62 550185.90 26.59
197468.62 550095.90 25.90
197468.62 550005.90 26.55
197468.62 549915.90 27.62
197468.62 549825.90 27.07
197468.62 549735.90 25.72
197468.62 549645.90 24.06
197468.62 549555.90 21.53
197468.62 549465.90 19.66
197468.62 549375.90 18.60
197468.62 549285.90 17.74
197468.62 549195.90 16.96
197468.62 549105.90 16.31
197468.62 549015.90 15.74
197468.62 548925.90 15.30
197468.62 548835.90 14.99
197468.62 548745.90 14.71
197468.62 548655.90 14.22
197468.62 548565.90 13.50
197468.62 548475.90 12.81
197468.62 548385.90 12.38
197468.62 548295.90 12.18
197468.62 548205.90 12.22
197468.62 548115.90 12.84
197468.62 548025.90 14.50
197468.62 547935.90 17.69
197468.62 547845.90 22.12
197468.62 547755.90 24.45
197468.62 547665.90 23.25
197468.62 547575.90 22.14
197468.62 547485.90 21.38
197468.62 547395.90 19.69
197468.62 547305.90 17.69
197468.62 547215.90 16.17
197468.62 547125.90 15.42
197468.62 547035.90 15.54
197468.62 546945.90 15.42
197468.62 546855.90 15.34
197468.62 546765.90 15.51
197468.62 546675.90 15.58
197468.62 546585.90 15.26
197468.62 546495.90 14.15
197468.62 546405.90 11.11
197468.62 546315.90 6.74
197468.62 546225.90 3.92
197468.62 546135.90 3.15
197468.62 546045.90 3.07
197468.62 545955.90 3.06
197468.62 545865.90 3.07
197468.62 545775.90 3.08
197468.62 545685.90 3.03
197468.62 545595.90 2.78
197468.62 545505.90 2.58
197468.62 545415.90 3.49
197468.62 545325.90 7.69
197468.62 545235.90 17.97
197468.62 545145.90 32.62
197468.62 545055.90 45.12
197468.62 544965.90 47.69
197468.62 544875.90 37.68
197468.62 544785.90 27.45
197468.62 544695.90 24.93
197468.62 544605.90 26.09
197468.62 544515.90 26.24
197558.62 572235.90 227.62
197558.62 572145.90 212.90
197558.62 572055.90 201.90
197558.62 571965.90 194.09
197558.62 571875.90 187.35
197558.62 571785.90 181.74
197558.62 571695.90 181.29
197558.62 571605.90 185.88
197558.62 571515.90 194.92
197558.62 571425.90 206.71
197558.62 571335.90 217.24
197558.62 571245.90 223.65
197558.62 571155.90 225.51
197558.62 571065.90 225.10
197558.62 570975.90 222.57
197558.62 570885.90 211.15
197558.62 570795.90 194.03
197558.62 570705.90 186.02
197558.62 570615.90 179.47
197558.62 570525.90 169.20
197558.62 570435.90 161.22
197558.62 570345.90 156.89
197558.62 570255.90 154.41
197558.62 570165.90 155.68
197558.62 570075.90 159.66
197558.62 569985.90 159.46
197558.62 569895.90 154.86
197558.62 569805.90 157.78
197558.62 569715.90 167.45
197558.62 569625.90 170.45
197558.62 569535.90 169.14
197558.62 569445.90 168.55
197558.62 569355.90 162.12
197558.62 569265.90 149.27
197558.62 569175.90 139.99
197558.62 569085.90 136.89
197558.62 568995.90 131.88
197558.62 568905.90 123.68
197558.62 568815.90 118.33
197558.62 568725.90 117.46
197558.62 568635.90 120.10
197558.62 568545.90 123.27
197558.62 568455.90 123.07
197558.62 568365.90 121.24
197558.62 568275.90 122.11
197558.62 568185.90 122.35
197558.62 568095.90 120.66
197558.62 568005.90 122.57
197558.62 567915.90 125.65
197558.62 567825.90 126.37
197558.62 567735.90 126.20
197558.62 567645.90 124.85
197558.62 567555.90 121.36
197558.62 567465.90 122.54
197558.62 567375.90 129.32
197558.62 567285.90 136.55
197558.62 567195.90 137.24
197558.62 567105.90 130.87
197558.62 567015.90 125.12
197558.62 566925.90 123.95
197558.62 566835.90 124.59
197558.62 566745.90 126.26
197558.62 566655.90 131.57
197558.62 566565.90 142.55
197558.62 566475.90 152.01
197558.62 566385.90 155.34
197558.62 566295.90 161.77
197558.62 566205.90 174.47
197558.62 566115.90 191.73
197558.62 566025.90 205.14
197558.62 565935.90 208.82
197558.62 565845.90 217.85
197558.62 565755.90 240.11
197558.62 565665.90 259.58
197558.62 565575.90 273.72
197558.62 565485.90 286.55
197558.62 565395.90 303.91
197558.62 565305.90 321.78
197558.62 565215.90 331.20
197558.62 565125.90 327.98
197558.62 565035.90 324.17
197558.62 564945.90 323.51
197558.62 564855.90 309.57
197558.62 564765.90 292.37
197558.62 564675.90 279.37
197558.62 564585.90 258.36
197558.62 564495.90 228.59
197558.62 564405.90 196.93
197558.62 564315.90 171.37
197558.62 564225.90 158.59
197558.62 564135.90 148.04
197558.62 564045.90 140.09
197558.62 563955.90 146.18
197558.62 563865.90 158.11
197558.62 563775.90 166.67
197558.62 563685.90 178.77
197558.62 563595.90 196.23
197558.62 563505.90 215.04
197558.62 563415.90 234.88
197558.62 563325.90 254.86
197558.62 563235.90 276.91
197558.62 563145.90 304.96
197558.62 563055.90 345.09
197558.62 562965.90 393.23
197558.62 562875.90 414.70
197558.62 562785.90 400.02
197558.62 562695.90 398.44
197558.62 562605.90 425.96
197558.62 562515.90 466.45
197558.62 562425.90 503.60
197558.62 562335.90 535.04
197558.62 562245.90 572.45
197558.62 562155.90 586.64
197558.62 562065.90 548.00
197558.62 561975.90 499.57
197558.62 561885.90 457.11
197558.62 561795.90 423.81
197558.62 561705.90 415.65
197558.62 561615.90 430.98
197558.62 561525.90 438.70
197558.62 561435.90 422.10
197558.62 561345.90 393.68
197558.62 561255.90 368.79
197558.62 561165.90 349.95
197558.62 561075.90 335.67
197558.62 560985.90 326.43
197558.62 560895.90 327.65
197558.62 560805.90 341.55
197558.62 560715.90 353.86
197558.62 560625.90 363.20
197558.62 560535.90 378.48
197558.62 560445.90 402.04
197558.62 560355.90 429.24
197558.62 560265.90 454.79
197558.62 560175.90 478.83
197558.62 560085.90 502.31
197558.62 559995.90 527.32
197558.62 559905.90 556.55
197558.62 559815.90 588.24
197558.62 559725.90 615.57
197558.62 559635.90 636.34
197558.62 559545.90 649.10
197558.62 559455.90 650.66
197558.62 559365.90 654.96
197558.62 559275.90 667.60
197558.62 559185.90 667.12
197558.62 559095.90 642.24
197558.62 559005.90 607.53
197558.62 558915.90 585.65
197558.62 558825.90 585.47
197558.62 558735.90 594.00
197558.62 558645.90 593.03
197558.62 558555.90 575.74
197558.62 558465.90 544.54
197558.62 558375.90 511.61
197558.62 558285.90 482.67
197558.62 558195.90 457.87
197558.62 558105.90 438.62
197558.62 558015.90 424.60
197558.62 557925.90 408.87
197558.62 557835.90 389.02
197558.62 557745.90 369.31
197558.62 557655.90 346.60
197558.62 557565.90 324.58
197558.62 557475.90 302.87
197558.62 557385.90 278.14
197558.62 557295.90 247.86
197558.62 557205.90 213.23
197558.62 557115.90 183.96
197558.62 557025.90 166.55
197558.62 556935.90 154.15
197558.62 556845.90 143.36
197558.62 556755.90 133.45
197558.62 556665.90 124.53
197558.62 556575.90 117.90
197558.62 556485.90 111.79
197558.62 556395.90 110.89
197558.62 556305.90 124.21
197558.62 556215.90 148.80
197558.62 556125.90 166.15
197558.62 556035.90 170.14
197558.62 555945.90 173.27
197558.62 555855.90 182.59
197558.62 555765.90 199.23
197558.62 555675.90 217.77
197558.62 555585.90 223.55
197558.62 555495.90 215.40
197558.62 555405.90 204.62
197558.62 555315.90 203.95
197558.62 555225.90 212.10
197558.62 555135.90 220.68
197558.62 555045.90 237.14
197558.62 554955.90 260.31
197558.62 554865.90 272.50
197558.62 554775.90 263.41
197558.62 554685.90 235.16
197558.62 554595.90 194.47
197558.62 554505.90 150.69
197558.62 554415.90 114.75
197558.62 554325.90 88.28
197558.62 554235.90 71.10
197558.62 554145.90 62.86
197558.62 554055.90 56.83
197558.62 553965.90 51.18
197558.62 553875.90 47.40
197558.62 553785.90 45.11
197558.62 553695.90 43.26
197558.62 553605.90 41.45
197558.62 553515.90 39.98
197558.62 553425.90 39.02
197558.62 553335.90 38.30
197558.62 553245.90 37.52
197558.62 553155.90 36.76
197558.62 553065.90 36.20
197558.62 552975.90 35.68
197558.62 552885.90 34.95
197558.62 552795.90 34.38
197558.62 552705.90 34.64
197558.62 552615.90 35.67
197558.62 552525.90 36.67
197558.62 552435.90 37.04
197558.62 552345.90 36.15
197558.62 552255.90 35.22
197558.62 552165.90 37.34
197558.62 552075.90 40.71
197558.62 551985.90 40.52
197558.62 551895.90 37.54
197558.62 551805.90 35.96
197558.62 551715.90 36.92
197558.62 551625.90 38.58
197558.62 551535.90 38.79
197558.62 551445.90 38.58
197558.62 551355.90 38.90
197558.62 551265.90 37.65
197558.62 551175.90 35.45
197558.62 551085.90 33.15
197558.62 550995.90 31.32
197558.62 550905.90 30.55
197558.62 550815.90 30.38
197558.62 550725.90 30.36
197558.62 550635.90 30.29
197558.62 550545.90 29.93
197558.62 550455.90 30.40
197558.62 550365.90 31.98
197558.62 550275.90 31.86
197558.62 550185.90 29.67
197558.62 550095.90 28.61
197558.62 550005.90 30.97
197558.62 549915.90 34.30
197558.62 549825.90 33.11
197558.62 549735.90 29.32
197558.62 549645.90 25.43
197558.62 549555.90 21.35
197558.62 549465.90 18.85
197558.62 549375.90 17.72
197558.62 549285.90 16.91
197558.62 549195.90 16.14
197558.62 549105.90 15.50
197558.62 549015.90 15.03
197558.62 548925.90 14.66
197558.62 548835.90 14.38
197558.62 548745.90 14.17
197558.62 548655.90 13.83
197558.62 548565.90 13.23
197558.62 548475.90 12.69
197558.62 548385.90 12.57
197558.62 548295.90 13.03
197558.62 548205.90 13.83
197558.62 548115.90 15.21
197558.62 548025.90 18.07
197558.62 547935.90 21.81
197558.62 547845.90 24.60
197558.62 547755.90 24.91
197558.62 547665.90 23.14
197558.62 547575.90 21.32
197558.62 547485.90 19.73
197558.62 547395.90 17.68
197558.62 547305.90 15.84
197558.62 547215.90 14.67
197558.62 547125.90 14.47
197558.62 547035.90 15.17
197558.62 546945.90 15.41
197558.62 546855.90 15.30
197558.62 546765.90 15.38
197558.62 546675.90 15.52
197558.62 546585.90 15.44
197558.62 546495.90 14.81
197558.62 546405.90 12.31
197558.62 546315.90 7.99
197558.62 546225.90 4.62
197558.62 546135.90 3.31
197558.62 546045.90 3.07
197558.62 545955.90 3.05
197558.62 545865.90 3.05
197558.62 545775.90 3.06
197558.62 545685.90 3.08
197558.62 545595.90 3.07
197558.62 545505.90 3.08
197558.62 545415.90 3.48
197558.62 545325.90 5.72
197558.62 545235.90 13.43
197558.62 545145.90 26.88
197558.62 545055.90 39.14
197558.62 544965.90 40.68
197558.62 544875.90 30.15
197558.62 544785.90 21.43
197558.62 544695.90 19.49
197558.62 544605.90 19.97
197558.62 544515.90 19.83
197648.62 572235.90 243.49
197648.62 572145.90 227.26
197648.62 572055.90 213.76
197648.62 571965.90 203.30
197648.62 571875.90 192.68
197648.62 571785.90 182.87
197648.62 571695.90 179.61
197648.62 571605.90 180.65
197648.62 571515.90 181.61
197648.62 571425.90 185.67
197648.62 571335.90 192.38
197648.62 571245.90 197.64
197648.62 571155.90 200.75
197648.62 571065.90 203.51
197648.62 570975.90 203.84
197648.62 570885.90 194.58
197648.62 570795.90 178.94
197648.62 570705.90 172.41
197648.62 570615.90 168.78
197648.62 570525.90 162.44
197648.62 570435.90 156.09
197648.62 570345.90 151.68
197648.62 570255.90 149.55
197648.62 570165.90 149.90
197648.62 570075.90 151.40
197648.62 569985.90 150.59
197648.62 569895.90 147.48
197648.62 569805.90 150.55
197648.62 569715.90 158.60
197648.62 569625.90 160.06
197648.62 569535.90 155.39
197648.62 569445.90 150.86
197648.62 569355.90 145.82
197648.62 569265.90 137.24
197648.62 569175.90 130.93
197648.62 569085.90 130.95
197648.62 568995.90 129.14
197648.62 568905.90 122.23
197648.62 568815.90 117.53
197648.62 568725.90 118.89
197648.62 568635.90 124.66
197648.62 568545.90 129.33
197648.62 568455.90 128.93
197648.62 568365.90 125.61
197648.62 568275.90 125.27
197648.62 568185.90 125.84
197648.62 568095.90 126.47
197648.62 568005.90 131.69
197648.62 567915.90 137.47
197648.62 567825.90 138.21
197648.62 567735.90 136.95
197648.62 567645.90 133.26
197648.62 567555.90 126.44
197648.62 567465.90 125.63
197648.62 567375.90 131.75
197648.62 567285.90 137.89
197648.62 567195.90 137.36
197648.62 567105.90 131.61
197648.62 567015.90 127.63
197648.62 566925.90 127.53
197648.62 566835.90 127.57
197648.62 566745.90 127.34
197648.62 566655.90 131.57
197648.62 566565.90 144.02
197648.62 566475.90 157.46
197648.62 566385.90 164.89
197648.62 566295.90 173.84
197648.62 566205.90 188.03
197648.62 566115.90 206.69
197648.62 566025.90 222.36
197648.62 565935.90 225.77
197648.62 565845.90 229.75
197648.62 565755.90 248.54
197648.62 565665.90 271.00
197648.62 565575.90 290.56
197648.62 565485.90 307.33
197648.62 565395.90 328.25
197648.62 565305.90 351.35
197648.62 565215.90 366.78
197648.62 565125.90 364.50
197648.62 565035.90 351.14
197648.62 564945.90 335.33
197648.62 564855.90 308.61
197648.62 564765.90 283.10
197648.62 564675.90 262.93
197648.62 564585.90 241.91
197648.62 564495.90 220.73
197648.62 564405.90 198.63
197648.62 564315.90 179.97
197648.62 564225.90 169.16
197648.62 564135.90 157.03
197648.62 564045.90 147.15
197648.62 563955.90 152.13
197648.62 563865.90 166.26
197648.62 563775.90 178.07
197648.62 563685.90 190.89
197648.62 563595.90 205.74
197648.62 563505.90 221.86
197648.62 563415.90 242.57
197648.62 563325.90 265.07
197648.62 563235.90 288.96
197648.62 563145.90 318.30
197648.62 563055.90 362.29
197648.62 562965.90 418.96
197648.62 562875.90 448.48
197648.62 562785.90 434.27
197648.62 562695.90 424.80
197648.62 562605.90 440.67
197648.62 562515.90 480.82
197648.62 562425.90 529.57
197648.62 562335.90 568.76
197648.62 562245.90 595.28
197648.62 562155.90 593.46
197648.62 562065.90 555.73
197648.62 561975.90 515.11
197648.62 561885.90 478.21
197648.62 561795.90 449.94
197648.62 561705.90 448.12
197648.62 561615.90 465.07
197648.62 561525.90 465.35
197648.62 561435.90 439.72
197648.62 561345.90 407.51
197648.62 561255.90 382.23
197648.62 561165.90 364.87
197648.62 561075.90 353.32
197648.62 560985.90 345.77
197648.62 560895.90 345.69
197648.62 560805.90 355.69
197648.62 560715.90 362.34
197648.62 560625.90 365.80
197648.62 560535.90 381.58
197648.62 560445.90 409.01
197648.62 560355.90 441.03
197648.62 560265.90 472.99
197648.62 560175.90 502.56
197648.62 560085.90 528.67
197648.62 559995.90 552.73
197648.62 559905.90 580.70
197648.62 559815.90 610.54
197648.62 559725.90 631.21
197648.62 559635.90 638.41
197648.62 559545.90 634.37
197648.62 559455.90 625.89
197648.62 559365.90 631.10
197648.62 559275.90 648.12
197648.62 559185.90 654.26
197648.62 559095.90 642.54
197648.62 559005.90 623.36
197648.62 558915.90 618.06
197648.62 558825.90 630.58
197648.62 558735.90 635.52
197648.62 558645.90 610.80
197648.62 558555.90 571.25
197648.62 558465.90 532.20
197648.62 558375.90 491.17
197648.62 558285.90 453.39
197648.62 558195.90 425.70
197648.62 558105.90 407.74
197648.62 558015.90 395.33
197648.62 557925.90 382.39
197648.62 557835.90 367.63
197648.62 557745.90 349.14
197648.62 557655.90 323.61
197648.62 557565.90 299.24
197648.62 557475.90 277.00
197648.62 557385.90 254.27
197648.62 557295.90 231.02
197648.62 557205.90 204.25
197648.62 557115.90 178.56
197648.62 557025.90 161.43
197648.62 556935.90 149.28
197648.62 556845.90 138.67
197648.62 556755.90 128.26
197648.62 556665.90 118.96
197648.62 556575.90 113.83
197648.62 556485.90 114.17
197648.62 556395.90 121.12
197648.62 556305.90 137.12
197648.62 556215.90 159.16
197648.62 556125.90 176.48
197648.62 556035.90 185.63
197648.62 555945.90 189.83
197648.62 555855.90 194.37
197648.62 555765.90 206.61
197648.62 555675.90 226.69
197648.62 555585.90 239.17
197648.62 555495.90 234.05
197648.62 555405.90 221.62
197648.62 555315.90 218.33
197648.62 555225.90 226.47
197648.62 555135.90 238.69
197648.62 555045.90 256.92
197648.62 554955.90 279.67
197648.62 554865.90 291.06
197648.62 554775.90 283.36
197648.62 554685.90 257.52
197648.62 554595.90 215.96
197648.62 554505.90 169.63
197648.62 554415.90 130.96
197648.62 554325.90 102.02
197648.62 554235.90 82.22
197648.62 554145.90 71.12
197648.62 554055.90 62.29
197648.62 553965.90 54.19
197648.62 553875.90 48.87
197648.62 553785.90 45.90
197648.62 553695.90 43.50
197648.62 553605.90 41.25
197648.62 553515.90 39.63
197648.62 553425.90 38.57
197648.62 553335.90 37.79
197648.62 553245.90 37.00
197648.62 553155.90 36.24
197648.62 553065.90 35.63
197648.62 552975.90 35.07
197648.62 552885.90 34.39
197648.62 552795.90 33.81
197648.62 552705.90 33.49
197648.62 552615.90 33.54
197648.62 552525.90 34.13
197648.62 552435.90 35.12
197648.62 552345.90 35.01
197648.62 552255.90 34.13
197648.62 552165.90 35.86
197648.62 552075.90 39.40
197648.62 551985.90 39.93
197648.62 551895.90 36.92
197648.62 551805.90 34.66
197648.62 551715.90 35.31
197648.62 551625.90 36.79
197648.62 551535.90 36.61
197648.62 551445.90 37.15
197648.62 551355.90 38.77
197648.62 551265.90 38.24
197648.62 551175.90 36.25
197648.62 551085.90 34.33
197648.62 550995.90 33.24
197648.62 550905.90 33.08
197648.62 550815.90 33.47
197648.62 550725.90 34.72
197648.62 550635.90 35.75
197648.62 550545.90 34.44
197648.62 550455.90 34.13
197648.62 550365.90 36.94
197648.62 550275.90 38.10
197648.62 550185.90 35.84
197648.62 550095.90 34.47
197648.62 550005.90 37.30
197648.62 549915.90 40.91
197648.62 549825.90 37.90
197648.62 549735.90 30.95
197648.62 549645.90 24.89
197648.62 549555.90 20.82
197648.62 549465.90 18.87
197648.62 549375.90 18.01
197648.62 549285.90 17.27
197648.62 549195.90 16.50
197648.62 549105.90 15.85
197648.62 549015.90 15.42
197648.62 548925.90 15.12
197648.62 548835.90 14.79
197648.62 548745.90 14.45
197648.62 548655.90 14.18
197648.62 548565.90 13.78
197648.62 548475.90 13.35
197648.62 548385.90 13.70
197648.62 548295.90 15.31
197648.62 548205.90 17.03
197648.62 548115.90 18.70
197648.62 548025.90 22.01
197648.62 547935.90 24.93
197648.62 547845.90 24.33
197648.62 547755.90 21.79
197648.62 547665.90 19.75
197648.62 547575.90 18.04
197648.62 547485.90 16.91
197648.62 547395.90 15.81
197648.62 547305.90 14.52
197648.62 547215.90 13.64
197648.62 547125.90 13.94
197648.62 547035.90 15.08
197648.62 546945.90 15.50
197648.62 546855.90 15.28
197648.62 546765.90 15.20
197648.62 546675.90 15.29
197648.62 546585.90 15.28
197648.62 546495.90 14.84
197648.62 546405.90 12.79
197648.62 546315.90 9.04
197648.62 546225.90 5.59
197648.62 546135.90 3.61
197648.62 546045.90 3.09
197648.62 545955.90 3.03
197648.62 545865.90 3.02
197648.62 545775.90 3.04
197648.62 545685.90 3.09
197648.62 545595.90 3.13
197648.62 545505.90 3.15
197648.62 545415.90 3.22
197648.62 545325.90 4.22
197648.62 545235.90 8.93
197648.62 545145.90 18.42
197648.62 545055.90 28.14
197648.62 544965.90 30.08
197648.62 544875.90 23.19
197648.62 544785.90 18.06
197648.62 544695.90 16.75
197648.62 544605.90 16.46
197648.62 544515.90 16.03
197738.62 572235.90 265.35
197738.62 572145.90 249.69
197738.62 572055.90 236.24
197738.62 571965.90 225.74
197738.62 571875.90 211.19
197738.62 571785.90 194.02
197738.62 571695.90 183.08
197738.62 571605.90 177.63
197738.62 571515.90 172.12
197738.62 571425.90 169.78
197738.62 571335.90 172.99
197738.62 571245.90 177.02
197738.62 571155.90 180.21
197738.62 571065.90 183.92
197738.62 570975.90 184.91
197738.62 570885.90 177.88
197738.62 570795.90 166.19
197738.62 570705.90 161.72
197738.62 570615.90 160.65
197738.62 570525.90 158.80
197738.62 570435.90 154.49
197738.62 570345.90 148.59
197738.62 570255.90 146.31
197738.62 570165.90 148.37
197738.62 570075.90 150.39
197738.62 569985.90 148.30
197738.62 569895.90 144.57
197738.62 569805.90 145.55
197738.62 569715.90 150.15
197738.62 569625.90 150.11
197738.62 569535.90 144.45
197738.62 569445.90 136.69
197738.62 569355.90 131.39
197738.62 569265.90 126.59
197738.62 569175.90 123.01
197738.62 569085.90 122.84
197738.62 568995.90 121.92
197738.62 568905.90 118.41
197738.62 568815.90 116.37
197738.62 568725.90 118.69
197738.62 568635.90 124.23
197738.62 568545.90 129.18
197738.62 568455.90 130.57
197738.62 568365.90 128.55
197738.62 568275.90 127.98
197738.62 568185.90 129.13
197738.62 568095.90 132.97
197738.62 568005.90 142.67
197738.62 567915.90 152.12
197738.62 567825.90 152.50
197738.62 567735.90 147.48
197738.62 567645.90 140.08
197738.62 567555.90 131.38
197738.62 567465.90 127.11
197738.62 567375.90 129.02
197738.62 567285.90 133.49
197738.62 567195.90 134.32
197738.62 567105.90 131.06
197738.62 567015.90 130.86
197738.62 566925.90 134.08
197738.62 566835.90 134.81
197738.62 566745.90 131.58
197738.62 566655.90 132.72
197738.62 566565.90 144.26
197738.62 566475.90 159.22
197738.62 566385.90 170.44
197738.62 566295.90 183.20
197738.62 566205.90 199.57
197738.62 566115.90 216.99
197738.62 566025.90 233.10
197738.62 565935.90 241.72
197738.62 565845.90 244.78
197738.62 565755.90 254.70
197738.62 565665.90 276.09
197738.62 565575.90 302.57
197738.62 565485.90 328.27
197738.62 565395.90 355.87
197738.62 565305.90 383.29
197738.62 565215.90 400.59
197738.62 565125.90 394.87
197738.62 565035.90 370.55
197738.62 564945.90 343.47
197738.62 564855.90 313.03
197738.62 564765.90 285.77
197738.62 564675.90 261.92
197738.62 564585.90 240.15
197738.62 564495.90 222.83
197738.62 564405.90 207.50
197738.62 564315.90 194.88
197738.62 564225.90 183.11
197738.62 564135.90 167.37
197738.62 564045.90 154.94
197738.62 563955.90 157.04
197738.62 563865.90 171.13
197738.62 563775.90 188.37
197738.62 563685.90 207.81
197738.62 563595.90 223.34
197738.62 563505.90 234.19
197738.62 563415.90 252.69
197738.62 563325.90 277.38
197738.62 563235.90 304.57
197738.62 563145.90 336.48
197738.62 563055.90 382.51
197738.62 562965.90 442.91
197738.62 562875.90 480.77
197738.62 562785.90 475.47
197738.62 562695.90 465.74
197738.62 562605.90 467.65
197738.62 562515.90 492.92
197738.62 562425.90 540.69
197738.62 562335.90 590.71
197738.62 562245.90 619.09
197738.62 562155.90 613.12
197738.62 562065.90 583.51
197738.62 561975.90 547.52
197738.62 561885.90 507.91
197738.62 561795.90 479.90
197738.62 561705.90 483.16
197738.62 561615.90 504.73
197738.62 561525.90 504.29
197738.62 561435.90 472.07
197738.62 561345.90 434.57
197738.62 561255.90 405.06
197738.62 561165.90 385.75
197738.62 561075.90 373.57
197738.62 560985.90 366.56
197738.62 560895.90 370.68
197738.62 560805.90 382.08
197738.62 560715.90 383.17
197738.62 560625.90 377.66
197738.62 560535.90 389.31
197738.62 560445.90 417.72
197738.62 560355.90 450.97
197738.62 560265.90 482.99
197738.62 560175.90 512.68
197738.62 560085.90 538.71
197738.62 559995.90 560.90
197738.62 559905.90 584.84
197738.62 559815.90 608.46
197738.62 559725.90 619.00
197738.62 559635.90 616.22
197738.62 559545.90 607.14
197738.62 559455.90 599.63
197738.62 559365.90 609.08
197738.62 559275.90 631.24
197738.62 559185.90 648.07
197738.62 559095.90 651.91
197738.62 559005.90 644.84
197738.62 558915.90 643.98
197738.62 558825.90 652.20
197738.62 558735.90 644.86
197738.62 558645.90 601.80
197738.62 558555.90 547.67
197738.62 558465.90 505.23
197738.62 558375.90 465.30
197738.62 558285.90 428.33
197738.62 558195.90 401.00
197738.62 558105.90 383.01
197738.62 558015.90 369.81
197738.62 557925.90 356.77
197738.62 557835.90 344.52
197738.62 557745.90 330.04
197738.62 557655.90 307.82
197738.62 557565.90 282.19
197738.62 557475.90 259.35
197738.62 557385.90 239.33
197738.62 557295.90 220.16
197738.62 557205.90 197.98
197738.62 557115.90 175.50
197738.62 557025.90 159.67
197738.62 556935.90 149.29
197738.62 556845.90 140.13
197738.62 556755.90 129.66
197738.62 556665.90 119.85
197738.62 556575.90 115.82
197738.62 556485.90 122.07
197738.62 556395.90 135.81
197738.62 556305.90 149.57
197738.62 556215.90 163.48
197738.62 556125.90 177.92
197738.62 556035.90 192.22
197738.62 555945.90 204.22
197738.62 555855.90 212.81
197738.62 555765.90 221.47
197738.62 555675.90 235.66
197738.62 555585.90 249.96
197738.62 555495.90 251.05
197738.62 555405.90 241.12
197738.62 555315.90 236.76
197738.62 555225.90 241.97
197738.62 555135.90 251.63
197738.62 555045.90 261.86
197738.62 554955.90 270.51
197738.62 554865.90 270.32
197738.62 554775.90 262.92
197738.62 554685.90 247.03
197738.62 554595.90 215.78
197738.62 554505.90 176.58
197738.62 554415.90 142.48
197738.62 554325.90 114.53
197738.62 554235.90 92.23
197738.62 554145.90 77.09
197738.62 554055.90 65.93
197738.62 553965.90 57.00
197738.62 553875.90 50.88
197738.62 553785.90 47.38
197738.62 553695.90 44.44
197738.62 553605.90 41.66
197738.62 553515.90 39.60
197738.62 553425.90 38.27
197738.62 553335.90 37.38
197738.62 553245.90 36.71
197738.62 553155.90 36.06
197738.62 553065.90 35.39
197738.62 552975.90 34.69
197738.62 552885.90 34.00
197738.62 552795.90 33.48
197738.62 552705.90 32.89
197738.62 552615.90 32.38
197738.62 552525.90 32.46
197738.62 552435.90 33.07
197738.62 552345.90 33.19
197738.62 552255.90 32.98
197738.62 552165.90 35.07
197738.62 552075.90 38.58
197738.62 551985.90 39.00
197738.62 551895.90 36.14
197738.62 551805.90 33.75
197738.62 551715.90 33.85
197738.62 551625.90 34.56
197738.62 551535.90 34.29
197738.62 551445.90 35.36
197738.62 551355.90 37.30
197738.62 551265.90 37.48
197738.62 551175.90 36.64
197738.62 551085.90 36.25
197738.62 550995.90 36.53
197738.62 550905.90 36.68
197738.62 550815.90 37.79
197738.62 550725.90 42.34
197738.62 550635.90 45.98
197738.62 550545.90 42.66
197738.62 550455.90 39.93
197738.62 550365.90 43.19
197738.62 550275.90 45.76
197738.62 550185.90 43.39
197738.62 550095.90 40.57
197738.62 550005.90 40.41
197738.62 549915.90 40.30
197738.62 549825.90 35.49
197738.62 549735.90 28.32
197738.62 549645.90 22.96
197738.62 549555.90 20.39
197738.62 549465.90 19.26
197738.62 549375.90 18.61
197738.62 549285.90 18.05
197738.62 549195.90 17.50
197738.62 549105.90 17.03
197738.62 549015.90 16.78
197738.62 548925.90 16.66
197738.62 548835.90 16.27
197738.62 548745.90 15.65
197738.62 548655.90 15.42
197738.62 548565.90 15.29
197738.62 548475.90 14.86
197738.62 548385.90 15.54
197738.62 548295.90 18.28
197738.62 548205.90 20.89
197738.62 548115.90 22.22
197738.62 548025.90 24.38
197738.62 547935.90 25.71
197738.62 547845.90 23.45
197738.62 547755.90 19.69
197738.62 547665.90 17.49
197738.62 547575.90 16.08
197738.62 547485.90 15.25
197738.62 547395.90 14.76
197738.62 547305.90 14.07
197738.62 547215.90 13.52
197738.62 547125.90 14.11
197738.62 547035.90 15.30
197738.62 546945.90 15.48
197738.62 546855.90 15.06
197738.62 546765.90 14.95
197738.62 546675.90 15.07
197738.62 546585.90 15.14
197738.62 546495.90 14.81
197738.62 546405.90 13.03
197738.62 546315.90 9.72
197738.62 546225.90 6.32
197738.62 546135.90 3.85
197738.62 546045.90 3.11
197738.62 545955.90 3.03
197738.62 545865.90 3.02
197738.62 545775.90 3.04
197738.62 545685.90 3.08
197738.62 545595.90 3.11
197738.62 545505.90 3.09
197738.62 545415.90 3.06
197738.62 545325.90 3.54
197738.62 545235.90 6.39
197738.62 545145.90 12.96
197738.62 545055.90 20.37
197738.62 544965.90 22.42
197738.62 544875.90 18.87
197738.62 544785.90 16.38
197738.62 544695.90 15.55
197738.62 544605.90 15.09
197738.62 544515.90 15.01
197828.62 572235.90 280.18
197828.62 572145.90 267.96
197828.62 572055.90 258.05
197828.62 571965.90 249.11
197828.62 571875.90 232.18
197828.62 571785.90 209.86
197828.62 571695.90 191.02
197828.62 571605.90 177.48
197828.62 571515.90 167.61
197828.62 571425.90 161.80
197828.62 571335.90 160.79
197828.62 571245.90 162.22
197828.62 571155.90 164.33
197828.62 571065.90 166.42
197828.62 570975.90 165.91
197828.62 570885.90 160.86
197828.62 570795.90 154.01
197828.62 570705.90 151.71
197828.62 570615.90 152.21
197828.62 570525.90 153.87
197828.62 570435.90 152.52
197828.62 570345.90 146.63
197828.62 570255.90 143.58
197828.62 570165.90 146.48
197828.62 570075.90 150.62
197828.62 569985.90 149.88
197828.62 569895.90 144.96
197828.62 569805.90 141.57
197828.62 569715.90 141.41
197828.62 569625.90 139.64
197828.62 569535.90 135.12
197828.62 569445.90 128.28
197828.62 569355.90 123.56
197828.62 569265.90 121.06
197828.62 569175.90 119.56
197828.62 569085.90 118.91
197828.62 568995.90 118.05
197828.62 568905.90 116.60
197828.62 568815.90 115.87
197828.62 568725.90 117.20
197828.62 568635.90 120.67
197828.62 568545.90 126.21
197828.62 568455.90 130.61
197828.62 568365.90 130.97
197828.62 568275.90 131.50
197828.62 568185.90 134.81
197828.62 568095.90 142.55
197828.62 568005.90 155.55
197828.62 567915.90 165.95
197828.62 567825.90 165.19
197828.62 567735.90 156.70
197828.62 567645.90 146.46
197828.62 567555.90 136.43
197828.62 567465.90 129.07
197828.62 567375.90 127.43
197828.62 567285.90 131.22
197828.62 567195.90 134.68
197828.62 567105.90 134.31
197828.62 567015.90 136.46
197828.62 566925.90 142.18
197828.62 566835.90 143.88
197828.62 566745.90 137.89
197828.62 566655.90 135.95
197828.62 566565.90 146.06
197828.62 566475.90 160.46
197828.62 566385.90 172.25
197828.62 566295.90 185.40
197828.62 566205.90 201.83
197828.62 566115.90 218.79
197828.62 566025.90 236.69
197828.62 565935.90 252.32
197828.62 565845.90 260.03
197828.62 565755.90 265.92
197828.62 565665.90 283.75
197828.62 565575.90 311.11
197828.62 565485.90 341.51
197828.62 565395.90 374.61
197828.62 565305.90 407.61
197828.62 565215.90 429.03
197828.62 565125.90 416.96
197828.62 565035.90 377.29
197828.62 564945.90 340.94
197828.62 564855.90 309.62
197828.62 564765.90 282.99
197828.62 564675.90 260.95
197828.62 564585.90 242.90
197828.62 564495.90 230.31
197828.62 564405.90 220.26
197828.62 564315.90 210.40
197828.62 564225.90 196.48
197828.62 564135.90 178.32
197828.62 564045.90 164.16
197828.62 563955.90 164.21
197828.62 563865.90 177.30
197828.62 563775.90 196.28
197828.62 563685.90 221.03
197828.62 563595.90 241.40
197828.62 563505.90 252.17
197828.62 563415.90 267.93
197828.62 563325.90 289.97
197828.62 563235.90 318.17
197828.62 563145.90 354.65
197828.62 563055.90 403.77
197828.62 562965.90 461.40
197828.62 562875.90 499.45
197828.62 562785.90 505.27
197828.62 562695.90 506.38
197828.62 562605.90 507.87
197828.62 562515.90 517.01
197828.62 562425.90 548.27
197828.62 562335.90 597.80
197828.62 562245.90 638.52
197828.62 562155.90 646.19
197828.62 562065.90 621.34
197828.62 561975.90 578.60
197828.62 561885.90 534.48
197828.62 561795.90 510.89
197828.62 561705.90 521.11
197828.62 561615.90 549.45
197828.62 561525.90 551.94
197828.62 561435.90 512.72
197828.62 561345.90 468.18
197828.62 561255.90 435.73
197828.62 561165.90 412.52
197828.62 561075.90 395.40
197828.62 560985.90 387.85
197828.62 560895.90 392.96
197828.62 560805.90 400.61
197828.62 560715.90 395.30
197828.62 560625.90 387.66
197828.62 560535.90 400.44
197828.62 560445.90 429.32
197828.62 560355.90 458.70
197828.62 560265.90 484.57
197828.62 560175.90 508.68
197828.62 560085.90 529.87
197828.62 559995.90 549.59
197828.62 559905.90 569.59
197828.62 559815.90 585.90
197828.62 559725.90 589.55
197828.62 559635.90 584.20
197828.62 559545.90 578.09
197828.62 559455.90 577.27
197828.62 559365.90 593.56
197828.62 559275.90 621.65
197828.62 559185.90 643.21
197828.62 559095.90 646.12
197828.62 559005.90 634.32
197828.62 558915.90 628.48
197828.62 558825.90 630.38
197828.62 558735.90 619.44
197828.62 558645.90 576.53
197828.62 558555.90 520.93
197828.62 558465.90 477.24
197828.62 558375.90 441.48
197828.62 558285.90 409.66
197828.62 558195.90 384.47
197828.62 558105.90 366.55
197828.62 558015.90 352.35
197828.62 557925.90 338.41
197828.62 557835.90 325.81
197828.62 557745.90 312.15
197828.62 557655.90 293.25
197828.62 557565.90 269.62
197828.62 557475.90 247.57
197828.62 557385.90 230.95
197828.62 557295.90 215.79
197828.62 557205.90 196.67
197828.62 557115.90 176.95
197828.62 557025.90 162.69
197828.62 556935.90 153.23
197828.62 556845.90 144.25
197828.62 556755.90 132.65
197828.62 556665.90 121.85
197828.62 556575.90 119.03
197828.62 556485.90 131.28
197828.62 556395.90 152.08
197828.62 556305.90 164.64
197828.62 556215.90 171.56
197828.62 556125.90 180.10
197828.62 556035.90 193.09
197828.62 555945.90 208.55
197828.62 555855.90 223.49
197828.62 555765.90 237.57
197828.62 555675.90 251.75
197828.62 555585.90 263.65
197828.62 555495.90 267.96
197828.62 555405.90 262.22
197828.62 555315.90 256.02
197828.62 555225.90 252.57
197828.62 555135.90 251.81
197828.62 555045.90 249.49
197828.62 554955.90 242.82
197828.62 554865.90 231.14
197828.62 554775.90 221.54
197828.62 554685.90 212.51
197828.62 554595.90 194.87
197828.62 554505.90 169.08
197828.62 554415.90 145.05
197828.62 554325.90 121.99
197828.62 554235.90 99.12
197828.62 554145.90 81.31
197828.62 554055.90 68.44
197828.62 553965.90 59.19
197828.62 553875.90 53.04
197828.62 553785.90 49.31
197828.62 553695.90 46.04
197828.62 553605.90 42.85
197828.62 553515.90 40.21
197828.62 553425.90 38.48
197828.62 553335.90 37.35
197828.62 553245.90 36.66
197828.62 553155.90 36.02
197828.62 553065.90 35.25
197828.62 552975.90 34.42
197828.62 552885.90 33.65
197828.62 552795.90 33.06
197828.62 552705.90 32.46
197828.62 552615.90 31.95
197828.62 552525.90 31.67
197828.62 552435.90 31.59
197828.62 552345.90 31.50
197828.62 552255.90 31.75
197828.62 552165.90 33.74
197828.62 552075.90 36.41
197828.62 551985.90 36.50
197828.62 551895.90 34.48
197828.62 551805.90 32.61
197828.62 551715.90 32.32
197828.62 551625.90 32.56
197828.62 551535.90 32.57
197828.62 551445.90 33.74
197828.62 551355.90 35.45
197828.62 551265.90 36.40
197828.62 551175.90 37.10
197828.62 551085.90 38.62
197828.62 550995.90 40.47
197828.62 550905.90 41.10
197828.62 550815.90 43.10
197828.62 550725.90 50.60
197828.62 550635.90 56.37
197828.62 550545.90 52.09
197828.62 550455.90 47.52
197828.62 550365.90 49.56
197828.62 550275.90 51.18
197828.62 550185.90 47.40
197828.62 550095.90 42.62
197828.62 550005.90 38.60
197828.62 549915.90 34.44
197828.62 549825.90 29.77
197828.62 549735.90 25.40
197828.62 549645.90 22.48
197828.62 549555.90 21.01
197828.62 549465.90 20.07
197828.62 549375.90 19.42
197828.62 549285.90 19.13
197828.62 549195.90 19.08
197828.62 549105.90 19.12
197828.62 549015.90 19.35
197828.62 548925.90 19.70
197828.62 548835.90 19.20
197828.62 548745.90 17.87
197828.62 548655.90 17.41
197828.62 548565.90 17.41
197828.62 548475.90 16.87
197828.62 548385.90 17.33
197828.62 548295.90 20.06
197828.62 548205.90 22.79
197828.62 548115.90 23.66
197828.62 548025.90 24.36
197828.62 547935.90 24.80
197828.62 547845.90 23.08
197828.62 547755.90 19.86
197828.62 547665.90 17.92
197828.62 547575.90 16.67
197828.62 547485.90 15.75
197828.62 547395.90 15.22
197828.62 547305.90 14.65
197828.62 547215.90 14.16
197828.62 547125.90 14.57
197828.62 547035.90 15.47
197828.62 546945.90 15.49
197828.62 546855.90 14.92
197828.62 546765.90 14.78
197828.62 546675.90 14.92
197828.62 546585.90 15.06
197828.62 546495.90 14.89
197828.62 546405.90 13.36
197828.62 546315.90 10.30
197828.62 546225.90 6.84
197828.62 546135.90 4.08
197828.62 546045.90 3.15
197828.62 545955.90 3.04
197828.62 545865.90 3.03
197828.62 545775.90 3.06
197828.62 545685.90 3.10
197828.62 545595.90 3.10
197828.62 545505.90 3.07
197828.62 545415.90 3.02
197828.62 545325.90 3.29
197828.62 545235.90 5.22
197828.62 545145.90 10.22
197828.62 545055.90 15.93
197828.62 544965.90 17.81
197828.62 544875.90 16.35
197828.62 544785.90 15.03
197828.62 544695.90 14.53
197828.62 544605.90 14.70
197828.62 544515.90 15.59
197918.62 572235.90 274.69
197918.62 572145.90 266.36
197918.62 572055.90 262.70
197918.62 571965.90 257.78
197918.62 571875.90 243.17
197918.62 571785.90 221.62
197918.62 571695.90 200.19
197918.62 571605.90 181.29
197918.62 571515.90 167.45
197918.62 571425.90 159.50
197918.62 571335.90 156.10
197918.62 571245.90 156.23
197918.62 571155.90 157.48
197918.62 571065.90 156.93
197918.62 570975.90 154.05
197918.62 570885.90 150.64
197918.62 570795.90 147.17
197918.62 570705.90 144.96
197918.62 570615.90 144.45
197918.62 570525.90 145.76
197918.62 570435.90 145.69
197918.62 570345.90 142.31
197918.62 570255.90 140.14
197918.62 570165.90 142.44
197918.62 570075.90 147.25
197918.62 569985.90 148.30
197918.62 569895.90 142.99
197918.62 569805.90 136.30
197918.62 569715.90 133.16
197918.62 569625.90 131.09
197918.62 569535.90 128.77
197918.62 569445.90 126.47
197918.62 569355.90 124.40
197918.62 569265.90 121.90
197918.62 569175.90 120.27
197918.62 569085.90 119.43
197918.62 568995.90 118.42
197918.62 568905.90 117.14
197918.62 568815.90 116.45
197918.62 568725.90 116.98
197918.62 568635.90 119.10
197918.62 568545.90 124.48
197918.62 568455.90 130.89
197918.62 568365.90 134.72
197918.62 568275.90 138.85
197918.62 568185.90 146.15
197918.62 568095.90 157.20
197918.62 568005.90 170.43
197918.62 567915.90 177.29
197918.62 567825.90 172.12
197918.62 567735.90 161.40
197918.62 567645.90 150.06
197918.62 567555.90 139.48
197918.62 567465.90 131.51
197918.62 567375.90 128.75
197918.62 567285.90 133.90
197918.62 567195.90 141.87
197918.62 567105.90 145.28
197918.62 567015.90 147.80
197918.62 566925.90 151.24
197918.62 566835.90 150.44
197918.62 566745.90 144.01
197918.62 566655.90 142.30
197918.62 566565.90 150.10
197918.62 566475.90 161.01
197918.62 566385.90 170.60
197918.62 566295.90 180.96
197918.62 566205.90 194.69
197918.62 566115.90 211.35
197918.62 566025.90 230.40
197918.62 565935.90 249.63
197918.62 565845.90 265.26
197918.62 565755.90 275.95
197918.62 565665.90 290.56
197918.62 565575.90 315.67
197918.62 565485.90 347.62
197918.62 565395.90 383.82
197918.62 565305.90 422.17
197918.62 565215.90 449.41
197918.62 565125.90 432.10
197918.62 565035.90 377.54
197918.62 564945.90 335.62
197918.62 564855.90 307.12
197918.62 564765.90 283.36
197918.62 564675.90 265.33
197918.62 564585.90 254.14
197918.62 564495.90 247.02
197918.62 564405.90 235.35
197918.62 564315.90 220.21
197918.62 564225.90 204.57
197918.62 564135.90 187.39
197918.62 564045.90 173.43
197918.62 563955.90 172.74
197918.62 563865.90 185.44
197918.62 563775.90 203.82
197918.62 563685.90 229.66
197918.62 563595.90 255.75
197918.62 563505.90 274.79
197918.62 563415.90 293.96
197918.62 563325.90 311.22
197918.62 563235.90 333.00
197918.62 563145.90 367.34
197918.62 563055.90 412.36
197918.62 562965.90 457.59
197918.62 562875.90 485.38
197918.62 562785.90 498.05
197918.62 562695.90 516.23
197918.62 562605.90 536.00
197918.62 562515.90 548.48
197918.62 562425.90 567.34
197918.62 562335.90 609.33
197918.62 562245.90 662.66
197918.62 562155.90 689.53
197918.62 562065.90 665.43
197918.62 561975.90 615.77
197918.62 561885.90 575.81
197918.62 561795.90 560.97
197918.62 561705.90 571.72
197918.62 561615.90 596.38
197918.62 561525.90 596.88
197918.62 561435.90 555.63
197918.62 561345.90 507.74
197918.62 561255.90 472.96
197918.62 561165.90 445.26
197918.62 561075.90 423.70
197918.62 560985.90 415.14
197918.62 560895.90 416.96
197918.62 560805.90 416.42
197918.62 560715.90 405.56
197918.62 560625.90 399.59
197918.62 560535.90 410.97
197918.62 560445.90 432.37
197918.62 560355.90 453.08
197918.62 560265.90 472.97
197918.62 560175.90 492.11
197918.62 560085.90 508.93
197918.62 559995.90 527.89
197918.62 559905.90 546.45
197918.62 559815.90 559.05
197918.62 559725.90 560.39
197918.62 559635.90 555.87
197918.62 559545.90 555.76
197918.62 559455.90 564.21
197918.62 559365.90 584.63
197918.62 559275.90 607.64
197918.62 559185.90 617.26
197918.62 559095.90 606.57
197918.62 559005.90 586.10
197918.62 558915.90 576.88
197918.62 558825.90 580.01
197918.62 558735.90 576.82
197918.62 558645.90 544.79
197918.62 558555.90 495.49
197918.62 558465.90 455.68
197918.62 558375.90 425.74
197918.62 558285.90 398.86
197918.62 558195.90 375.20
197918.62 558105.90 358.39
197918.62 558015.90 343.86
197918.62 557925.90 327.85
197918.62 557835.90 314.06
197918.62 557745.90 299.55
197918.62 557655.90 282.31
197918.62 557565.90 264.06
197918.62 557475.90 244.65
197918.62 557385.90 227.48
197918.62 557295.90 212.18
197918.62 557205.90 195.70
197918.62 557115.90 179.40
197918.62 557025.90 166.60
197918.62 556935.90 156.26
197918.62 556845.90 145.67
197918.62 556755.90 134.21
197918.62 556665.90 125.03
197918.62 556575.90 124.14
197918.62 556485.90 138.70
197918.62 556395.90 160.75
197918.62 556305.90 173.32
197918.62 556215.90 178.87
197918.62 556125.90 185.80
197918.62 556035.90 197.18
197918.62 555945.90 213.08
197918.62 555855.90 231.57
197918.62 555765.90 252.92
197918.62 555675.90 270.81
197918.62 555585.90 277.05
197918.62 555495.90 277.13
197918.62 555405.90 272.91
197918.62 555315.90 265.46
197918.62 555225.90 252.86
197918.62 555135.90 239.21
197918.62 555045.90 225.65
197918.62 554955.90 210.81
197918.62 554865.90 195.19
197918.62 554775.90 183.64
197918.62 554685.90 174.09
197918.62 554595.90 162.76
197918.62 554505.90 148.01
197918.62 554415.90 135.96
197918.62 554325.90 123.00
197918.62 554235.90 104.01
197918.62 554145.90 85.81
197918.62 554055.90 71.75
197918.62 553965.90 61.79
197918.62 553875.90 55.49
197918.62 553785.90 51.31
197918.62 553695.90 47.34
197918.62 553605.90 43.71
197918.62 553515.90 40.93
197918.62 553425.90 39.05
197918.62 553335.90 37.61
197918.62 553245.90 36.63
197918.62 553155.90 35.82
197918.62 553065.90 35.02
197918.62 552975.90 34.20
197918.62 552885.90 33.37
197918.62 552795.90 32.61
197918.62 552705.90 32.00
197918.62 552615.90 31.60
197918.62 552525.90 31.28
197918.62 552435.90 30.89
197918.62 552345.90 30.57
197918.62 552255.90 30.62
197918.62 552165.90 31.59
197918.62 552075.90 32.89
197918.62 551985.90 32.96
197918.62 551895.90 32.12
197918.62 551805.90 31.25
197918.62 551715.90 31.01
197918.62 551625.90 31.28
197918.62 551535.90 31.86
197918.62 551445.90 33.16
197918.62 551355.90 34.65
197918.62 551265.90 36.10
197918.62 551175.90 37.82
197918.62 551085.90 40.18
197918.62 550995.90 42.82
197918.62 550905.90 44.78
197918.62 550815.90 49.06
197918.62 550725.90 59.30
197918.62 550635.90 66.95
197918.62 550545.90 63.55
197918.62 550455.90 58.05
197918.62 550365.90 56.36
197918.62 550275.90 53.83
197918.62 550185.90 48.37
197918.62 550095.90 42.98
197918.62 550005.90 37.60
197918.62 549915.90 32.23
197918.62 549825.90 28.52
197918.62 549735.90 25.85
197918.62 549645.90 23.77
197918.62 549555.90 22.50
197918.62 549465.90 21.72
197918.62 549375.90 21.29
197918.62 549285.90 21.51
197918.62 549195.90 22.59
197918.62 549105.90 23.88
197918.62 549015.90 24.44
197918.62 548925.90 24.45
197918.62 548835.90 23.19
197918.62 548745.90 20.76
197918.62 548655.90 19.47
197918.62 548565.90 19.12
197918.62 548475.90 18.50
197918.62 548385.90 18.66
197918.62 548295.90 20.56
197918.62 548205.90 22.48
197918.62 548115.90 23.06
197918.62 548025.90 23.24
197918.62 547935.90 23.56
197918.62 547845.90 22.66
197918.62 547755.90 20.46
197918.62 547665.90 19.14
197918.62 547575.90 18.23
197918.62 547485.90 17.30
197918.62 547395.90 16.62
197918.62 547305.90 15.92
197918.62 547215.90 15.16
197918.62 547125.90 14.97
197918.62 547035.90 15.35
197918.62 546945.90 15.40
197918.62 546855.90 14.90
197918.62 546765.90 14.75
197918.62 546675.90 14.84
197918.62 546585.90 15.02
197918.62 546495.90 15.04
197918.62 546405.90 13.97
197918.62 546315.90 11.33
197918.62 546225.90 7.74
197918.62 546135.90 4.57
197918.62 546045.90 3.25
197918.62 545955.90 3.05
197918.62 545865.90 3.07
197918.62 545775.90 3.11
197918.62 545685.90 3.16
197918.62 545595.90 3.17
197918.62 545505.90 3.11
197918.62 545415.90 3.03
197918.62 545325.90 3.19
197918.62 545235.90 4.58
197918.62 545145.90 8.18
197918.62 545055.90 12.51
197918.62 544965.90 14.74
197918.62 544875.90 14.67
197918.62 544785.90 13.93
197918.62 544695.90 13.82
197918.62 544605.90 14.98
197918.62 544515.90 17.36
198008.62 572235.90 252.59
198008.62 572145.90 243.36
198008.62 572055.90 243.22
198008.62 571965.90 243.59
198008.62 571875.90 234.80
198008.62 571785.90 218.08
198008.62 571695.90 198.77
198008.62 571605.90 180.60
198008.62 571515.90 167.25
198008.62 571425.90 159.28
198008.62 571335.90 157.41
198008.62 571245.90 160.49
198008.62 571155.90 163.79
198008.62 571065.90 161.66
198008.62 570975.90 155.30
198008.62 570885.90 151.51
198008.62 570795.90 149.09
198008.62 570705.90 145.30
198008.62 570615.90 141.61
198008.62 570525.90 139.74
198008.62 570435.90 138.55
198008.62 570345.90 137.08
198008.62 570255.90 136.24
198008.62 570165.90 136.93
198008.62 570075.90 139.15
198008.62 569985.90 139.47
198008.62 569895.90 135.69
198008.62 569805.90 130.93
198008.62 569715.90 129.23
198008.62 569625.90 128.61
198008.62 569535.90 128.12
198008.62 569445.90 130.20
198008.62 569355.90 130.63
198008.62 569265.90 125.96
198008.62 569175.90 122.33
198008.62 569085.90 120.75
198008.62 568995.90 119.34
198008.62 568905.90 118.03
198008.62 568815.90 117.76
198008.62 568725.90 118.43
198008.62 568635.90 119.59
198008.62 568545.90 123.43
198008.62 568455.90 130.61
198008.62 568365.90 138.93
198008.62 568275.90 148.32
198008.62 568185.90 159.25
198008.62 568095.90 170.33
198008.62 568005.90 180.01
198008.62 567915.90 181.57
198008.62 567825.90 171.82
198008.62 567735.90 160.44
198008.62 567645.90 150.80
198008.62 567555.90 142.91
198008.62 567465.90 136.24
198008.62 567375.90 132.96
198008.62 567285.90 140.97
198008.62 567195.90 155.96
198008.62 567105.90 164.58
198008.62 567015.90 165.58
198008.62 566925.90 161.43
198008.62 566835.90 155.86
198008.62 566745.90 153.37
198008.62 566655.90 154.55
198008.62 566565.90 156.17
198008.62 566475.90 157.81
198008.62 566385.90 163.25
198008.62 566295.90 171.86
198008.62 566205.90 182.67
198008.62 566115.90 196.95
198008.62 566025.90 213.63
198008.62 565935.90 232.15
198008.62 565845.90 253.93
198008.62 565755.90 273.40
198008.62 565665.90 289.61
198008.62 565575.90 313.38
198008.62 565485.90 343.99
198008.62 565395.90 379.53
198008.62 565305.90 421.32
198008.62 565215.90 455.93
198008.62 565125.90 443.06
198008.62 565035.90 386.87
198008.62 564945.90 346.64
198008.62 564855.90 323.68
198008.62 564765.90 302.58
198008.62 564675.90 286.99
198008.62 564585.90 281.00
